-360.473     -372.622     -384.313     -395.474     -406.065     -416.079     -425.530     -434.449     -442.873     -450.842     -458.391     -465.550     -472.345     -478.792     -484.903     -490.687     -496.148     -501.285     -506.099     -510.587     -514.747     -518.576     -522.070     -525.227     -528.043     -530.515     -532.640     -534.417     -535.844     -536.919     -537.644     -538.019     -538.049     -537.739     -537.095     -536.128     -534.847     -533.265     -531.395     -529.250     -526.844     -524.189     -521.297     -518.181     -514.851     -511.319     -507.596     -503.695     -499.625     -495.401     -491.036     -486.544     -481.940     -477.240     -472.461     -467.622     -462.746     -457.861     -452.999     -448.194     -443.484     -438.898     -434.462     -430.188     -426.084     -422.153     -418.404     -414.858     -411.556     -408.552     -405.903     -403.651     -401.800     -400.292     -399.003     -397.748     -396.309     -394.463     -391.999     -388.652     -383.849     -376.288     -363.904     -345.562     -323.482     -303.443     -297.246     -286.134     -239.857     -179.985     -229.787     -250.098     -223.472     -211.884     -229.394     -275.507     -314.587     -345.716     -365.546     -371.263     -361.818     -338.644     -307.689     -258.560     -211.443     -313.162     -357.347     -372.842     -343.372     -306.673     -372.459     -334.506     -256.236     -195.518     -181.781     -166.541     -154.625     -150.644     -150.728     -152.756     -156.288     -161.058     -166.647     -172.624     -178.651     -184.517     -190.110     -195.396     -200.382     -205.104     -209.604     -213.927     -218.111     -222.191     -226.193     -230.138     -234.042     -237.917     -241.774     -245.619     -249.460     -253.300     -257.147     -261.006     -264.882     -268.782     -272.714     -276.685     -280.705     -284.781     -288.925     -293.145     -297.450     -301.849     -306.349     -310.956     -315.673     -320.500     -325.432     -330.456     -335.546     -340.662     -345.745     -350.716     -355.477     -359.916     -363.920     -367.395     -370.298     -372.687     -374.775     -376.969     -379.837     -383.724     -386.974     -380.921     -358.056     -401.967     -468.656     -439.005     -430.292     -495.549     -505.331     -516.954     -515.003     -511.095     -507.714     -504.572     -501.347     -497.887     -494.106     -489.952     -485.402     -480.471     -475.205     -469.677     -463.976     -458.198     -452.435     -446.771     -441.277     -436.010     -431.014     -426.318     -421.945     -417.912     -414.235     -410.938     -408.056     -405.648     -403.811     -402.687     -402.468     -403.389     -405.695     -409.603     -415.242     -422.613     -431.570     -441.833     -453.032     -464.762     -476.663     -488.742     -502.918     -528.869     -589.318     -657.863     -704.111
-377.701     -389.724     -401.226     -412.143     -422.449     -432.148     -441.270     -449.858     -457.961     -465.625     -472.892     -479.794     -486.358     -492.600     -498.531     -504.156     -509.476     -514.491     -519.199     -523.596     -527.678     -531.441     -534.880     -537.993     -540.774     -543.219     -545.324     -547.084     -548.495     -549.552     -550.252     -550.592     -550.572     -550.194     -549.462     -548.383     -546.965     -545.220     -543.160     -540.797     -538.146     -535.219     -532.030     -528.593     -524.920     -521.026     -516.925     -512.633     -508.164     -503.536     -498.768     -493.876     -488.881     -483.799     -478.650     -473.454     -468.237     -463.030     -457.868     -452.793     -447.842     -443.046     -438.422     -433.973     -429.691     -425.566     -421.601     -417.825     -414.303     -411.133     -408.435     -406.320     -404.855     -404.033     -403.749     -403.813     -403.981     -404.027     -403.835     -403.416     -402.569     -399.666     -389.848     -368.558     -341.294     -319.967     -323.220     -333.294     -253.469     -222.348     -242.720     -266.718     -255.414     -250.571     -278.941     -326.437     -370.391     -405.978     -428.419     -432.611     -412.735     -359.956     -293.401     -257.602     -290.104     -352.826     -388.443     -421.956     -383.640     -288.503     -388.425     -350.544     -272.088     -203.064     -147.969     -188.663     -182.041     -176.926     -174.706     -174.620     -176.211     -179.121     -182.975     -187.410     -192.121     -196.891     -201.584     -206.131     -210.507     -214.718     -218.783     -222.728     -226.581     -230.366     -234.102     -237.807     -241.494     -245.173     -248.852     -252.539     -256.240     -259.959     -263.704     -267.478     -271.288     -275.141     -279.044     -283.005     -287.033     -291.136     -295.323     -299.604     -303.988     -308.482     -313.096     -317.834     -322.701     -327.699     -332.826     -338.075     -343.429     -348.863     -354.341     -359.816     -365.232     -370.527     -375.644     -380.543     -385.217     -389.721     -394.182     -398.782     -403.633     -408.387     -411.414     -409.685     -409.193     -510.997     -548.231     -544.632     -525.844     -491.251     -580.747     -573.224     -552.621     -541.595     -534.786     -529.168     -523.931     -518.807     -513.616     -508.222     -502.547     -496.571     -490.329     -483.889     -477.342     -470.785     -464.315     -458.017     -451.967     -446.221     -440.825     -435.810     -431.200     -427.011     -423.261     -419.969     -417.171     -414.925     -413.327     -412.521     -412.699     -414.089     -416.922     -421.394     -427.617     -435.595     -445.222     -456.323     -468.722     -482.328     -497.288     -514.351     -535.728     -566.137     -609.625     -657.828     -703.571
-396.268     -408.127     -419.392     -430.007     -439.957     -449.265     -457.978     -466.157     -473.864     -481.155     -488.078     -494.667     -500.948     -506.937     -512.640     -518.061     -523.198     -528.049     -532.609     -536.874     -540.839     -544.500     -547.853     -550.893     -553.615     -556.015     -558.087     -559.823     -561.215     -562.256     -562.937     -563.252     -563.195     -562.763     -561.958     -560.782     -559.244     -557.351     -555.116     -552.551     -549.670     -546.486     -543.012     -539.264     -535.257     -531.005     -526.528     -521.842     -516.968     -511.927     -506.743     -501.437     -496.032     -490.548     -485.003     -479.421     -473.826     -468.255     -462.750     -457.358     -452.124     -447.080     -442.239     -437.592     -433.114     -428.778     -424.573     -420.531     -416.737     -413.338     -410.526     -408.499     -407.412     -407.322     -408.153     -409.688     -411.613     -413.617     -415.626     -418.161     -422.385     -428.225     -426.178     -396.691     -355.854     -314.358     -313.452     -404.808     -326.626     -290.357     -294.049     -304.593     -308.861     -318.696     -346.089     -388.114     -435.382     -479.563     -509.404     -517.084     -499.552     -472.656     -399.248     -383.115     -405.535     -447.167     -403.922     -362.207     -460.156     -383.312     -339.860     -335.621     -296.668     -217.958     -218.680     -215.058     -208.046     -201.804     -197.735     -195.775     -195.604     -196.865     -199.197     -202.261     -205.772     -209.513     -213.334     -217.145     -220.897     -224.576     -228.182     -231.727     -235.226     -238.695     -242.147     -245.596     -249.051     -252.520     -256.011     -259.529     -263.080     -266.669     -270.301     -273.982     -277.718     -281.514     -285.379     -289.320     -293.345     -297.463     -301.683     -306.015     -310.466     -315.046     -319.763     -324.624     -329.634     -334.798     -340.118     -345.591     -351.212     -356.970     -362.849     -368.828     -374.885     -380.997     -387.148     -393.332     -399.564     -405.890     -412.385     -419.139     -426.204     -433.544     -441.343     -452.174     -478.663     -538.487     -546.101     -603.968     -604.895     -530.571     -632.864     -602.675     -576.773     -568.709     -561.371     -553.866     -546.760     -540.031     -533.432     -526.746     -519.847     -512.700     -505.340     -497.843     -490.309     -482.846     -475.555     -468.528     -461.842     -455.555     -449.712     -444.345     -439.473     -435.111     -431.268     -427.959     -425.211     -423.081     -421.662     -421.105     -421.607     -423.402     -426.718     -431.737     -438.548     -447.131     -457.382     -469.184     -482.506     -497.490     -514.528     -534.365     -558.267     -587.797     -623.169     -661.279     -698.821
-416.162     -427.847     -438.844     -449.101     -458.622     -467.455     -475.672     -483.357     -490.589     -497.435     -503.949     -510.168     -516.114     -521.800     -527.229     -532.400     -537.309     -541.950     -546.318     -550.406     -554.212     -557.732     -560.961     -563.897     -566.536     -568.872     -570.898     -572.605     -573.980     -575.012     -575.687     -575.992     -575.916     -575.451     -574.592     -573.341     -571.701     -569.680     -567.289     -564.540     -561.446     -558.020     -554.275     -550.226     -545.890     -541.284     -536.428     -531.344     -526.057     -520.592     -514.978     -509.243     -503.411     -497.505     -491.543     -485.545     -479.538     -473.559     -467.660     -461.897     -456.328     -450.991     -445.900     -441.037     -436.359     -431.815     -427.371     -423.042     -418.924     -415.210     -412.176     -410.139     -409.380     -410.057     -412.136     -415.360     -419.266     -423.258     -426.899     -430.865     -438.346     -453.801     -471.779     -423.959     -377.354     -319.353     -296.929     -378.286     -378.315     -352.460     -346.347     -350.476     -359.103     -375.115     -403.519     -446.282     -502.893     -566.499     -611.657     -617.196     -633.958     -552.167     -519.359     -462.842     -491.921     -567.164     -449.113     -437.715     -539.124     -483.352     -423.292     -381.503     -318.112     -256.765     -249.906     -242.377     -233.460     -225.616     -219.842     -216.212     -214.468     -214.263     -215.241     -217.075     -219.489     -222.267     -225.252     -228.341     -231.470     -234.608     -237.742     -240.872     -244.001     -247.139     -250.294     -253.473     -256.685     -259.934     -263.226     -266.566     -269.959     -273.409     -276.921     -280.500     -284.152     -287.883     -291.701     -295.612     -299.624     -303.747     -307.989     -312.360     -316.868     -321.522     -326.331     -331.303     -336.447     -341.767     -347.271     -352.963     -358.845     -364.918     -371.185     -377.646     -384.305     -391.168     -398.249     -405.566     -413.152     -421.049     -429.319     -438.036     -447.303     -457.329     -468.748     -483.271     -503.080     -520.991     -523.487     -589.588     -583.785     -526.194     -556.794     -550.914     -590.591     -597.329     -588.427     -578.363     -569.389     -561.199     -553.283     -545.301     -537.102     -528.666     -520.051     -511.359     -502.707     -494.217     -486.000     -478.153     -470.756     -463.871     -457.539     -451.790     -446.638     -442.088     -438.140     -434.796     -432.075     -430.028     -428.753     -428.408     -429.209     -431.404     -435.226     -440.841     -448.297     -457.503     -468.281     -480.490     -494.193     -509.747     -527.731     -548.731     -573.167     -601.089     -631.750     -663.408     -694.161
-437.377     -448.910     -459.622     -469.466     -478.475     -486.735     -494.356     -501.451     -508.123     -514.451     -520.493     -526.285     -531.846     -537.182     -542.291     -547.167     -551.800     -556.183     -560.309     -564.173     -567.773     -571.107     -574.173     -576.972     -579.501     -581.754     -583.723     -585.398     -586.762     -587.797     -588.484     -588.801     -588.732     -588.259     -587.374     -586.072     -584.355     -582.229     -579.704     -576.792     -573.504     -569.853     -565.851     -561.513     -556.856     -551.898     -546.662     -541.174     -535.464     -529.565     -523.510     -517.332     -511.060     -504.718     -498.322     -491.885     -485.431     -478.995     -472.636     -466.427     -460.444     -454.745     -449.357     -444.260     -439.396     -434.682     -430.036     -425.430     -420.934     -416.774     -413.332     -411.092     -410.526     -411.966     -415.462     -420.717     -427.091     -433.491     -438.185     -439.955     -443.082     -452.300     -456.713     -418.310     -378.123     -486.396     -402.194     -403.943     -403.939     -394.040     -389.604     -392.595     -402.155     -419.388     -447.042     -490.068     -558.838     -660.682     -746.405     -673.090     -700.225     -629.072     -533.526     -453.353     -525.871     -565.491     -573.304     -567.114     -622.969     -611.359     -545.511     -469.499     -389.292     -318.862     -289.139     -271.841     -258.749     -248.569     -241.041     -235.887     -232.749     -231.250     -231.027     -231.756     -233.169     -235.050     -237.241     -239.631     -242.147     -244.746     -247.403     -250.109     -252.860     -255.658     -258.506     -261.407     -264.367     -267.388     -270.474     -273.629     -276.856     -280.160     -283.544     -287.014     -290.574     -294.232     -297.992     -301.864     -305.854     -309.971     -314.224     -318.622     -323.174     -327.889     -332.778     -337.849     -343.112     -348.577     -354.252     -360.147     -366.274     -372.643     -379.271     -386.174     -393.377     -400.908     -408.800     -417.094     -425.833     -435.071     -444.866     -455.298     -466.483     -478.631     -492.126     -507.434     -524.204     -539.897     -556.466     -568.212     -585.928     -604.856     -520.783     -624.080     -671.275     -636.599     -615.229     -601.639     -591.229     -581.987     -572.944     -563.686     -554.106     -544.254     -534.246     -524.224     -514.331     -504.704     -495.465     -486.718     -478.547     -471.014     -464.160     -458.009     -452.565     -447.823     -443.768     -440.389     -437.693     -435.725     -434.592     -434.470     -435.598     -438.249     -442.672     -449.017     -457.263     -467.188     -478.416     -490.628     -503.905     -518.957     -536.817     -558.115     -582.611     -609.334     -636.945     -664.031     -689.367
-459.944     -471.386     -481.799     -491.158     -499.545     -507.107     -514.011     -520.410     -526.432     -532.168     -537.679     -542.994     -548.126     -553.070     -557.816     -562.350     -566.660     -570.734     -574.566     -578.152     -581.494     -584.593     -587.453     -590.076     -592.464     -594.614     -596.517     -598.159     -599.522     -600.580     -601.306     -601.669     -601.640     -601.194     -600.315     -598.992     -597.225     -595.020     -592.386     -589.335     -585.877     -582.022     -577.782     -573.168     -568.198     -562.892     -557.277     -551.384     -545.246     -538.904     -532.399     -525.770     -519.054     -512.274     -505.438     -498.549     -491.613     -484.658     -477.747     -470.975     -464.454     -458.283     -452.521     -447.166     -442.152     -437.353     -432.613     -427.791     -422.868     -418.063     -413.884     -411.065     -410.389     -412.500     -417.619     -425.394     -435.119     -445.538     -453.011     -448.822     -431.077     -434.975     -490.472     -532.143     -532.099     -496.030     -466.973     -444.531     -434.027     -426.939     -424.434     -427.751     -437.246     -453.310     -476.175     -508.360     -569.617     -696.936     -883.411     -772.645     -707.592     -669.540     -579.767     -493.245     -654.848     -662.933     -684.043     -727.021     -669.105     -617.801     -578.915     -495.954     -416.456     -359.091     -322.887     -299.314     -282.589     -270.229     -261.139     -254.678     -250.353     -247.739     -246.464     -246.210     -246.715     -247.769     -249.214     -250.936     -252.856     -254.924     -257.108     -259.389     -261.758     -264.212     -266.747     -269.365     -272.067     -274.854     -277.729     -280.693     -283.749     -286.900     -290.151     -293.504     -296.966     -300.541     -304.237     -308.059     -312.017     -316.117     -320.370     -324.782     -329.366     -334.129     -339.083     -344.238     -349.605     -355.196     -361.024     -367.103     -373.450     -380.085     -387.035     -394.329     -402.005     -410.107     -418.686     -427.796     -437.496     -447.846     -458.914     -470.778     -483.539     -497.339     -512.344     -528.630     -545.961     -564.233     -586.644     -624.456     -627.985     -698.929     -646.882     -678.508     -660.278     -651.126     -634.488     -621.937     -611.835     -602.293     -592.357     -581.786     -570.681     -559.245     -547.690     -536.206     -524.960     -514.099     -503.755     -494.039     -485.038     -476.818     -469.418     -462.854     -457.122     -452.201     -448.058     -444.667     -442.023     -440.170     -439.222     -439.377     -440.909     -444.127     -449.308     -456.601     -465.919     -476.840     -488.605     -500.383     -512.027     -524.947     -541.494     -562.872     -588.014     -614.531     -640.234     -663.774     -684.500
-483.722     -495.152     -505.233     -513.989     -521.594     -528.292     -534.329     -539.911     -545.190     -550.265     -555.190     -559.984     -564.644     -569.151     -573.485     -577.622     -581.546     -585.244     -588.711     -591.947     -594.958     -597.753     -600.342     -602.734     -604.936     -606.947     -608.760     -610.361     -611.726     -612.823     -613.613     -614.054     -614.100     -613.715     -612.870     -611.550     -609.754     -607.490     -604.769     -601.604     -598.003     -593.972     -589.517     -584.649     -579.383     -573.742     -567.759     -561.468     -554.912     -548.134     -541.184     -534.113     -526.967     -519.774     -512.530     -505.212     -497.788     -490.262     -482.696     -475.217     -467.999     -461.216     -454.997     -449.386     -444.326     -439.653     -435.089     -430.283     -424.971     -419.261     -413.828     -409.781     -408.380     -410.860     -417.849     -428.622     -442.456     -459.371     -478.203     -476.076     -419.702     -388.439     -518.978     -597.610     -573.169     -523.851     -494.295     -473.475     -461.138     -454.623     -453.087     -456.713     -465.965     -481.233     -499.993     -508.829     -505.816     -519.856     -625.217     -684.729     -700.053     -697.536     -630.996     -595.542     -656.083     -636.432     -558.986     -635.521     -651.220     -625.071     -562.264     -481.705     -426.322     -381.188     -347.434     -322.879     -304.779     -291.261     -281.188     -273.823     -268.619     -265.140     -263.019     -261.951     -261.685     -262.023     -262.812     -263.938     -265.321     -266.906     -268.656     -270.546     -272.563     -274.697     -276.942     -279.296     -281.757     -284.325     -286.999     -289.782     -292.674     -295.679     -298.798     -302.036     -305.396     -308.885     -312.509     -316.273     -320.185     -324.253     -328.486     -332.893     -337.483     -342.266     -347.254     -352.457     -357.889     -363.562     -369.494     -375.700     -382.204     -389.031     -396.214     -403.793     -411.813     -420.331     -429.407     -439.107     -449.501     -460.660     -472.657     -485.571     -499.489     -514.507     -530.713     -548.121     -566.581     -585.609     -603.228     -613.196     -648.634     -763.064     -727.109     -647.077     -700.264     -658.275     -649.403     -640.484     -632.383     -623.243     -612.466     -600.378     -587.514     -574.318     -561.107     -548.099     -535.465     -523.350     -511.886     -501.190     -491.360     -482.462     -474.537     -467.594     -461.616     -456.565     -452.394     -449.055     -446.534     -444.869     -444.182     -444.694     -446.710     -450.585     -456.647     -465.085     -475.802     -488.206     -500.968     -512.040     -520.022     -527.590     -540.814     -562.762     -590.407     -618.292     -642.826     -662.961     -679.043
-507.799     -519.267     -528.920     -536.891     -543.510     -549.166     -554.200     -558.870     -563.342     -567.708     -572.003     -576.225     -580.350     -584.344     -588.173     -591.808     -595.228     -598.422     -601.390     -604.138     -606.680     -609.035     -611.221     -613.257     -615.155     -616.920     -618.549     -620.027     -621.329     -622.413     -623.229     -623.716     -623.810     -623.455     -622.610     -621.257     -619.397     -617.047     -614.223     -610.942     -607.209     -603.023     -598.382     -593.291     -587.763     -581.826     -575.519     -568.885     -561.969     -554.817     -547.487     -540.044     -532.555     -525.062     -517.552     -509.954     -502.171     -494.147     -485.931     -477.698     -469.719     -462.293     -455.665     -449.961     -445.166     -441.106     -437.383     -433.287     -427.999     -421.257     -413.956     -407.793     -404.478     -406.235     -415.296     -429.129     -446.252     -466.745     -506.650     -542.330     -535.047     -511.661     -582.407     -573.367     -561.252     -534.194     -511.064     -494.372     -483.927     -478.722     -477.995     -481.636     -490.453     -507.660     -541.603     -586.360     -528.034     -492.478     -506.061     -532.670     -585.077     -568.421     -524.469     -569.939     -629.160     -604.792     -562.269     -608.323     -664.395     -502.208     -488.734     -464.782     -429.226     -396.168     -368.549     -346.593     -329.489     -316.290     -306.215     -298.657     -293.132     -289.245     -286.665     -285.115     -284.370     -284.249     -284.610     -285.346     -286.378     -287.649     -289.119     -290.761     -292.556     -294.489     -296.554     -298.744     -301.054     -303.483     -306.029     -308.692     -311.473     -314.372     -317.393     -320.539     -323.812     -327.219     -330.764     -334.453     -338.294     -342.294     -346.460     -350.801     -355.328     -360.049     -364.976     -370.120     -375.494     -381.113     -386.995     -393.158     -399.628     -406.432     -413.609     -421.199     -429.255     -437.835     -447.007     -456.842     -467.417     -478.809     -491.098     -504.364     -518.693     -534.174     -550.902     -568.965     -588.429     -609.280     -631.384     -656.438     -693.984     -731.602     -756.625     -702.931     -695.789     -688.394     -670.636     -661.915     -656.780     -648.195     -636.184     -622.232     -607.481     -592.594     -577.920     -563.644     -549.886     -536.764     -524.404     -512.931     -502.453     -493.045     -484.748     -477.566     -471.471     -466.410     -462.316     -459.129     -456.817     -455.410     -455.027     -455.894     -458.333     -462.731     -469.473     -478.845     -490.879     -505.071     -519.732     -530.768     -531.900     -526.872     -532.269     -556.448     -590.407     -621.462     -644.468     -659.930     -670.201
-532.747     -544.282     -553.338     -560.263     -565.654     -570.091     -574.020     -577.731     -581.380     -585.030     -588.684     -592.307     -595.852     -599.267     -602.506     -605.536     -608.337     -610.902     -613.238     -615.361     -617.296     -619.072     -620.719     -622.263     -623.725     -625.119     -626.446     -627.694     -628.838     -629.828     -630.598     -631.064     -631.135     -630.731     -629.798     -628.316     -626.301     -623.784     -620.800     -617.369     -613.493     -609.159     -604.353     -599.067     -593.314     -587.127     -580.555     -573.649     -566.455     -559.015     -551.382     -543.642     -535.903     -528.246     -520.655     -512.990     -505.031     -496.612     -487.746     -478.674     -469.820     -461.677     -454.672     -449.040     -444.828     -441.948     -440.011     -437.856     -433.494     -425.638     -415.662     -406.647     -399.880     -397.488     -408.852     -423.496     -441.739     -456.546     -443.655     -488.066     -556.336     -596.103     -585.939     -568.715     -553.272     -535.705     -519.658     -507.594     -500.119     -496.729     -496.561     -499.175     -505.178     -517.857     -569.737     -657.701     -582.194     -502.500     -454.549     -429.454     -538.963     -542.314     -575.987     -591.080     -567.802     -554.494     -558.661     -566.819     -549.155     -507.070     -471.306     -454.588     -432.382     -409.216     -388.153     -370.252     -355.590     -343.854     -334.637     -327.540     -322.206     -318.326     -315.629     -313.887     -312.911     -312.544     -312.663     -313.172     -313.996     -315.081     -316.387     -317.883     -319.548     -321.366     -323.325     -325.418     -327.637     -329.980     -332.442     -335.023     -337.723     -340.541     -343.479     -346.540     -349.728     -353.044     -356.496     -360.088     -363.826     -367.717     -371.769     -375.990     -380.388     -384.974     -389.758     -394.751     -399.967     -405.422     -411.127     -417.118     -423.406     -430.026     -437.013     -444.414     -452.278     -460.667     -469.650     -479.300     -489.700     -500.934     -513.090     -526.259     -540.544     -556.063     -572.970     -591.506     -612.083     -635.549     -663.960     -702.981     -766.600     -871.468     -856.642     -770.939     -742.011     -723.675     -695.240     -688.883     -685.896     -676.604     -662.183     -645.859     -629.160     -612.760     -596.916     -581.681     -567.074     -553.165     -540.081     -527.968     -516.956     -507.135     -498.549     -491.198     -485.043     -480.020     -476.045     -473.042     -470.963     -469.822     -469.725     -470.883     -473.617     -478.334     -485.482     -495.492     -508.694     -525.122     -543.763     -559.937     -553.300     -519.879     -506.891     -539.638     -589.265     -626.162     -646.480     -655.273     -658.375
-560.152     -571.782     -579.919     -585.382     -589.196     -592.196     -594.909     -597.616     -600.429     -603.358     -606.358     -609.357     -612.279     -615.057     -617.636     -619.980     -622.072     -623.914     -625.522     -626.923     -628.154     -629.254     -630.263     -631.219     -632.153     -633.085     -634.028     -634.975     -635.902     -636.752     -637.439     -637.847     -637.847     -637.325     -636.209     -634.487     -632.202     -629.422     -626.205     -622.584     -618.551     -614.077     -609.122     -603.663     -597.706     -591.294     -584.494     -577.372     -569.969     -562.301     -554.400     -546.368     -538.388     -530.635     -523.124     -515.608     -507.649     -498.867     -489.205     -479.015     -468.953     -459.822     -452.343     -446.863     -443.417     -442.135     -443.146     -445.134     -443.689     -434.468     -420.045     -408.788     -401.109     -389.758     -414.921     -434.534     -418.249     -493.017     -425.484     -435.851     -503.137     -547.139     -556.477     -551.578     -542.243     -531.046     -520.456     -512.644     -508.544     -507.566     -508.079     -508.873     -511.042     -518.231     -542.313     -568.851     -522.524     -467.209     -447.777     -462.324     -599.263     -581.166     -581.017     -515.220     -528.995     -524.961     -531.847     -536.876     -514.654     -494.592     -471.113     -454.334     -437.867     -421.285     -405.731     -391.960     -380.244     -370.555     -362.728     -356.545     -351.781     -348.220     -345.665     -343.945     -342.912     -342.441     -342.433     -342.805     -343.494     -344.449     -345.634     -347.017     -348.578     -350.298     -352.166     -354.170     -356.303     -358.561     -360.938     -363.432     -366.043     -368.769     -371.612     -374.573     -377.655     -380.860     -384.194     -387.661     -391.267     -395.017     -398.919     -402.981     -407.210     -411.615     -416.212     -421.006     -426.012     -431.247     -436.727     -442.473     -448.511     -454.870     -461.588     -468.707     -476.278     -484.361     -493.026     -502.346     -512.410     -523.305     -535.131     -547.998     -562.024     -577.372     -594.253     -613.020     -634.267     -659.106     -689.599     -729.309     -782.357     -840.379     -865.423     -856.735     -824.397     -741.797     -748.318     -714.791     -722.440     -708.043     -689.027     -669.538     -650.598     -632.691     -615.826     -599.783     -584.407     -569.725     -555.889     -543.096     -531.512     -521.247     -512.349     -504.809     -498.578     -493.575     -489.702     -486.863     -484.990     -484.069     -484.172     -485.475     -488.272     -492.959     -500.042     -510.209     -524.445     -544.148     -570.437     -603.910     -623.518     -526.779     -454.738     -512.361     -596.006     -639.471     -653.804     -652.413     -646.508
-592.019     -603.734     -610.308     -613.590     -615.311     -616.561     -617.883     -619.487     -621.393     -623.542     -625.826     -628.140     -630.377     -632.453     -634.307     -635.901     -637.224     -638.284     -639.108     -639.736     -640.213     -640.592     -640.920     -641.247     -641.613     -642.054     -642.593     -643.235     -643.959     -644.701     -645.349     -645.742     -645.693     -645.034     -643.669     -641.605     -638.939     -635.800     -632.292     -628.459     -624.280     -619.690     -614.615     -609.001     -602.845     -596.202     -589.175     -581.868     -574.316     -566.470     -558.284     -549.858     -541.507     -533.615     -526.318     -519.211     -511.434     -502.183     -491.277     -479.298     -467.251     -456.419     -448.118     -442.781     -440.023     -440.150     -445.035     -455.238     -461.769     -450.179     -423.786     -405.694     -404.010     -342.477     -376.927     -498.721     -463.954     -500.843     -471.938     -472.220     -499.080     -524.147     -535.710     -536.692     -531.704     -523.950     -516.373     -511.629     -511.216     -514.204     -517.198     -517.053     -516.484     -524.720     -538.109     -560.120     -536.772     -471.814     -518.345     -523.130     -544.982     -535.622     -568.744     -482.400     -495.907     -476.849     -431.146     -453.930     -468.482     -469.160     -461.352     -451.929     -441.690     -430.921     -420.321     -410.480     -401.751     -394.276     -388.050     -382.998     -379.004     -375.942     -373.687     -372.120     -371.138     -370.648     -370.574     -370.853     -371.432     -372.269     -373.333     -374.595     -376.035     -377.637     -379.387     -381.275     -383.293     -385.434     -387.695     -390.071     -392.561     -395.164     -397.880     -400.711     -403.657     -406.722     -409.909     -413.222     -416.667     -420.250     -423.975     -427.852     -431.888     -436.092     -440.473     -445.044     -449.817     -454.807     -460.026     -465.512     -471.271     -477.338     -483.748     -490.542     -497.767     -505.482     -513.751     -522.648     -532.254     -542.663     -553.969     -566.285     -579.734     -594.465     -610.687     -628.683     -648.924     -672.102     -699.302     -731.730     -769.588     -808.543     -837.009     -851.046     -875.632     -778.914     -775.343     -793.539     -783.443     -743.788     -716.695     -692.624     -670.495     -650.843     -633.005     -616.142     -599.855     -584.176     -569.362     -555.700     -543.410     -532.613     -523.347     -515.588     -509.263     -504.274     -500.502     -497.827     -496.151     -495.415     -495.634     -496.906     -499.410     -503.395     -509.161     -517.022     -527.291     -540.449     -556.174     -538.687     -691.936     -613.698     -459.682     -575.254     -665.930     -689.692     -683.801     -660.881     -640.748
-631.290     -642.827     -646.424     -646.286     -645.110     -644.113     -643.706     -643.937     -644.719     -645.899     -647.321     -648.826     -650.284     -651.584     -652.655     -653.456     -653.977     -654.232     -654.258     -654.104     -653.826     -653.484     -653.138     -652.847     -652.666     -652.649     -652.835     -653.248     -653.873     -654.638     -655.399     -655.931     -655.957     -655.219     -653.574     -651.069     -647.902     -644.314     -640.475     -636.442     -632.164     -627.521     -622.376     -616.628     -610.251     -603.326     -596.025     -588.541     -580.935     -573.023     -564.540     -555.517     -546.487     -538.286     -531.410     -525.229     -517.997     -507.992     -494.813     -479.689     -464.083     -449.833     -439.892     -434.832     -432.476     -432.414     -440.025     -465.210     -493.053     -482.186     -437.261     -394.780     -417.437     -346.455     -333.031     -451.539     -473.198     -490.452     -493.896     -499.039     -511.833     -524.827     -532.028     -532.324     -527.158     -518.951     -511.018     -507.238     -510.454     -519.473     -527.500     -525.658     -518.674     -536.489     -542.034     -524.626     -554.391     -531.256     -525.578     -523.569     -526.624     -491.722     -487.271     -515.375     -552.724     -542.677     -463.819     -443.898     -450.517     -455.892     -455.545     -451.941     -446.499     -440.032     -433.202     -426.497     -420.287     -414.760     -410.004     -406.031     -402.803     -400.263     -398.341     -396.964     -396.064     -395.580     -395.456     -395.647     -396.112     -396.818     -397.739     -398.852     -400.139     -401.586     -403.179     -404.910     -406.771     -408.754     -410.856     -413.074     -415.404     -417.845     -420.397     -423.061     -425.838     -428.730     -431.740     -434.872     -438.130     -441.519     -445.046     -448.717     -452.539     -456.542     -460.671     -465.001     -469.523     -474.251     -479.201     -484.392     -489.845     -495.588     -501.651     -508.072     -514.891     -522.159     -529.935     -538.281     -547.268     -556.975     -567.481     -578.873     -591.247     -604.694     -619.344     -635.336     -652.877     -672.224     -693.602     -716.940     -741.137     -763.194     -779.129     -788.058     -810.506     -770.256     -709.193     -743.170     -794.181     -769.102     -736.154     -709.302     -685.411     -665.351     -647.075     -629.325     -611.763     -594.690     -578.587     -563.868     -550.787     -539.444     -529.840     -521.913     -515.563     -510.668     -507.087     -504.679     -503.309     -502.876     -503.337     -504.706     -507.065     -510.550     -515.261     -521.213     -528.295     -535.756     -539.044     -520.288     -551.304     -632.442     -840.468     -910.161     -836.378     -801.063     -753.957     -684.998     -643.507
-684.126     -693.914     -691.303     -685.530     -680.033     -675.747     -672.784     -671.002     -670.174     -670.050     -670.376     -670.930     -671.519     -672.001     -672.272     -672.281     -672.013     -671.486     -670.744     -669.843     -668.849     -667.830     -666.860     -666.009     -665.355     -664.972     -664.928     -665.271     -665.997     -667.029     -668.187     -669.159     -669.527     -668.862     -666.922     -663.827     -659.984     -655.829     -651.630     -647.445     -643.162     -638.567     -633.428     -627.564     -620.908     -613.563     -605.828     -598.118     -590.649     -582.994     -574.321     -564.412     -554.172     -545.379     -539.560     -535.786     -530.233     -519.095     -501.338     -480.620     -458.812     -436.911     -423.775     -420.458     -418.836     -415.434     -419.772     -474.329     -553.139     -543.081     -479.422     -484.952     -475.462     -427.020     -431.209     -470.523     -493.878     -507.581     -516.232     -523.864     -532.355     -539.493     -542.194     -538.795     -529.652     -516.816     -504.490     -499.150     -506.902     -526.595     -538.670     -522.740     -515.444     -541.713     -533.197     -512.353     -520.834     -528.977     -518.483     -498.650     -547.791     -568.632     -562.010     -559.848     -550.943     -507.387     -470.328     -463.618     -464.093     -464.533     -463.060     -460.045     -456.050     -451.442     -446.556     -441.694     -437.083     -432.876     -429.164     -425.982     -423.329     -421.184     -419.510     -418.266     -417.409     -416.899     -416.698     -416.773     -417.094     -417.638     -418.383     -419.311     -420.406     -421.657     -423.053     -424.586     -426.247     -428.031     -429.935     -431.953     -434.084     -436.327     -438.680     -441.144     -443.720     -446.409     -449.214     -452.137     -455.183     -458.357     -461.662     -465.105     -468.692     -472.431     -476.331     -480.400     -484.649     -489.090     -493.738     -498.609     -503.720     -509.095     -514.758     -520.740     -527.075     -533.801     -540.963     -548.610     -556.793     -565.566     -574.984     -585.093     -595.939     -607.552     -619.956     -633.161     -647.158     -661.903     -677.245     -692.799     -707.710     -720.640     -730.469     -739.828     -751.980     -705.647     -687.955     -620.745     -675.386     -717.319     -740.043     -720.558     -695.746     -674.591     -655.673     -636.757     -617.654     -599.019     -581.637     -565.992     -552.322     -540.647     -530.916     -523.015     -516.829     -512.215     -509.024     -507.098     -506.277     -506.432     -507.475     -509.382     -512.208     -516.078     -521.144     -527.573     -535.408     -544.290     -553.135     -563.029     -590.407     -628.908     -671.408     -783.514     -862.553     -844.722     -822.812     -706.074     -646.134
-766.899     -766.898     -750.608     -734.090     -720.621     -710.632     -703.593     -698.930     -696.033     -694.397     -693.573     -693.207     -693.008     -692.767     -692.342     -691.657     -690.693     -689.471     -688.041     -686.471     -684.837     -683.221     -681.709     -680.395     -679.386     -678.788     -678.711     -679.229     -680.360     -682.034     -684.032     -685.945     -687.144     -686.858     -684.579     -680.573     -675.715     -670.794     -666.198     -661.941     -657.794     -653.396     -648.365     -642.395     -635.338     -627.288     -618.698     -610.471     -603.456     -596.843     -588.236     -576.877     -564.458     -554.698     -552.183     -555.802     -555.510     -543.713     -515.715     -485.509     -455.564     -414.098     -396.071     -403.194     -408.062     -401.603     -399.395     -470.185     -583.769     -587.763     -558.355     -549.538     -537.222     -516.516     -512.521     -522.463     -532.880     -541.032     -548.028     -554.823     -561.273     -565.471     -564.348     -555.133     -537.691     -513.426     -487.043     -473.145     -486.768     -531.226     -542.520     -477.162     -476.537     -511.583     -527.775     -529.324     -543.793     -562.723     -567.432     -534.134     -547.401     -588.534     -603.462     -555.156     -466.570     -479.456     -484.041     -482.149     -480.420     -478.673     -476.199     -472.949     -469.154     -465.065     -460.897     -456.817     -452.960     -449.419     -446.254     -443.490     -441.135     -439.178     -437.598     -436.369     -435.465     -434.856     -434.518     -434.425     -434.557     -434.895     -435.421     -436.123     -436.987     -438.004     -439.164     -440.459     -441.884     -443.434     -445.103     -446.889     -448.789     -450.802     -452.926     -455.161     -457.509     -459.969     -462.544     -465.236     -468.048     -470.983     -474.046     -477.241     -480.573     -484.028     -487.677     -491.462     -495.413     -499.541     -503.857     -508.372     -513.102     -518.063     -523.273     -528.755     -534.532     -540.632     -547.083     -553.917     -561.165     -568.855     -577.011     -585.647     -594.758     -604.319     -614.281     -624.545     -634.972     -645.334     -655.258     -664.172     -671.111     -674.853     -673.844     -667.095     -650.085     -625.898     -638.995     -549.031     -568.420     -626.059     -715.207     -697.592     -677.161     -663.657     -649.618     -632.556     -613.659     -594.729     -576.950     -561.105     -547.393     -535.814     -526.277     -518.672     -512.884     -508.783     -506.223     -505.035     -505.044     -506.087     -508.036     -510.824     -514.479     -519.109     -524.888     -532.003     -540.579     -550.647     -562.439     -577.856     -601.321     -633.456     -674.344     -739.429     -711.987     -683.674     -735.595     -795.021     -708.935
-907.445     -859.333     -810.540     -776.994     -754.462     -739.130     -728.972     -722.363     -718.287     -715.885     -714.567     -713.821     -713.292     -712.698     -711.878     -710.738     -709.269     -707.503     -705.510     -703.376     -701.196     -699.072     -697.115     -695.453     -694.233     -693.617     -693.768     -694.799     -696.766     -699.611     -703.099     -706.760     -709.697     -710.451     -707.681     -701.958     -695.384     -689.353     -684.291     -680.073     -676.258     -672.255     -667.465     -661.406     -653.795     -644.626     -634.396     -624.739     -618.722     -615.255     -606.227     -590.652     -572.564     -559.915     -568.543     -599.501     -612.703     -607.358     -553.362     -511.734     -491.465     -407.172     -380.504     -418.451     -441.109     -451.279     -467.819     -507.316     -555.331     -576.078     -582.038     -585.511     -584.818     -579.449     -575.677     -575.341     -577.165     -580.910     -586.346     -592.983     -600.097     -605.084     -603.521     -588.086     -558.976     -516.137     -460.363     -416.756     -395.769     -415.925     -450.137     -511.195     -505.567     -505.259     -509.390     -521.802     -551.510     -587.781     -634.175     -655.350     -631.692     -614.831     -599.041     -566.900     -534.786     -517.155     -509.529     -503.567     -499.061     -495.233     -491.435     -487.499     -483.438     -479.356     -475.344     -471.498     -467.892     -464.577     -461.586     -458.938     -456.634     -454.665     -453.019     -451.678     -450.620     -449.826     -449.277     -448.955     -448.842     -448.924     -449.188     -449.623     -450.217     -450.963     -451.853     -452.880     -454.038     -455.323     -456.731     -458.258     -459.902     -461.661     -463.533     -465.519     -467.618     -469.830     -472.157     -474.599     -477.160     -479.841     -482.646     -485.577     -488.639     -491.837     -495.175     -498.658     -502.294     -506.088     -510.050     -514.186     -518.508     -523.026     -527.752     -532.700     -537.885     -543.322     -549.029     -555.019     -561.307     -567.903     -574.804     -581.999     -589.456     -597.110     -604.866     -612.584     -620.045     -626.972     -632.954     -637.454     -639.831     -639.335     -635.372     -627.139     -612.872     -589.183     -555.410     -530.291     -507.304     -505.482     -587.104     -648.472     -618.745     -626.415     -626.759     -618.586     -602.709     -584.255     -566.381     -550.505     -536.901     -525.510     -516.254     -509.028     -503.755     -500.325     -498.594     -498.377     -499.468     -501.651     -504.725     -508.549     -513.078     -518.372     -524.575     -531.857     -540.374     -550.329     -562.139     -576.774     -595.437     -618.056     -642.967     -664.242     -659.514     -646.282     -674.458     -723.976     -798.608
-837.945     -826.213     -798.411     -775.820     -759.368     -747.968     -740.365     -735.677     -733.022     -731.775     -731.347     -731.302     -731.246     -730.923     -730.157     -728.897     -727.156     -725.011     -722.568     -719.949     -717.281     -714.696     -712.344     -710.403     -709.091     -708.653     -709.325     -711.299     -714.681     -719.422     -725.326     -731.997     -738.427     -741.968     -738.309     -728.677     -719.040     -711.335     -705.691     -701.654     -698.480     -695.203     -690.864     -684.723     -676.388     -665.753     -653.075     -640.660     -638.120     -649.168     -636.090     -604.344     -563.673     -522.580     -555.296     -694.438     -720.868     -769.751     -673.699     -612.882     -607.874     -551.540     -514.149     -522.347     -532.093     -540.294     -552.507     -571.960     -592.848     -608.446     -620.747     -632.127     -639.175     -640.195     -635.703     -628.109     -622.601     -623.400     -628.717     -636.216     -646.497     -658.114     -666.875     -655.385     -620.184     -571.382     -493.422     -476.938     -463.959     -429.248     -402.851     -444.084     -461.913     -463.864     -465.680     -486.564     -549.589     -587.967     -582.169     -613.263     -622.035     -618.328     -605.915     -575.932     -554.332     -539.217     -529.407     -521.968     -515.857     -510.598     -505.850     -501.349     -497.021     -492.836     -488.814     -484.999     -481.420     -478.110     -475.090     -472.370     -469.950     -467.827     -465.992     -464.430     -463.128     -462.070     -461.243     -460.630     -460.221     -460.002     -459.963     -460.093     -460.385     -460.830     -461.423     -462.156     -463.024     -464.024     -465.151     -466.401     -467.773     -469.263     -470.870     -472.594     -474.433     -476.386     -478.455     -480.640     -482.942     -485.362     -487.902     -490.564     -493.351     -496.265     -499.310     -502.489     -505.805     -509.264     -512.870     -516.627     -520.542     -524.621     -528.871     -533.299     -537.912     -542.718     -547.724     -552.934     -558.350     -563.970     -569.781     -575.752     -581.841     -587.976     -594.039     -599.886     -605.306     -610.017     -613.683     -615.854     -616.029     -613.618     -607.948     -598.349     -583.817     -562.731     -539.370     -522.292     -506.924     -487.642     -494.075     -568.831     -611.516     -636.768     -640.600     -626.766     -602.225     -576.757     -554.902     -537.019     -522.367     -510.480     -501.081     -494.034     -489.229     -486.557     -485.846     -486.855     -489.326     -492.959     -497.432     -502.473     -507.934     -513.822     -520.262     -527.428     -535.496     -544.632     -555.041     -566.995     -580.527     -594.941     -608.357     -616.826     -616.349     -613.070     -620.303     -628.440     -682.173
-754.100     -761.711     -756.973     -750.727     -745.546     -742.130     -740.427     -740.178     -740.976     -742.423     -744.154     -745.786     -746.989     -747.493     -747.184     -746.051     -744.186     -741.727     -738.841     -735.702     -732.483     -729.355     -726.511     -724.206     -722.750     -722.517     -723.893     -727.196     -732.607     -740.127     -749.640     -761.074     -774.062     -785.428     -780.345     -760.648     -745.757     -735.488     -728.962     -725.489     -723.798     -722.301     -719.349     -713.754     -704.867     -692.494     -676.526     -656.979     -667.349     -740.184     -715.221     -662.952     -603.001     -534.552     -501.138     -638.138     -694.508     -742.139     -714.227     -682.902     -668.965     -644.808     -624.613     -618.567     -617.887     -620.143     -625.264     -632.609     -641.907     -653.009     -669.361     -691.895     -706.651     -712.300     -703.477     -681.872     -663.560     -663.417     -672.069     -679.385     -693.916     -695.589     -695.577     -725.319     -640.488     -623.915     -592.760     -571.561     -539.348     -509.269     -486.477     -479.622     -462.745     -428.631     -389.563     -374.041     -400.185     -497.146     -544.517     -619.694     -641.282     -625.262     -603.586     -580.244     -562.354     -549.328     -540.069     -533.029     -527.241     -522.195     -517.550     -513.153     -508.913     -504.804     -500.842     -497.048     -493.449     -490.074     -486.941     -484.062     -481.445     -479.090     -476.994     -475.148     -473.545     -472.173     -471.022     -470.082     -469.342     -468.792     -468.423     -468.227     -468.196     -468.323     -468.603     -469.029     -469.596     -470.301     -471.138     -472.104     -473.197     -474.413     -475.751     -477.208     -478.784     -480.477     -482.287     -484.214     -486.257     -488.417     -490.694     -493.090     -495.605     -498.241     -500.999     -503.881     -506.889     -510.024     -513.289     -516.686     -520.218     -523.888     -527.698     -531.652     -535.750     -539.997     -544.394     -548.939     -553.627     -558.448     -563.388     -568.412     -573.471     -578.497     -583.384     -587.989     -592.131     -595.574     -598.030     -599.181     -598.658     -596.098     -591.162     -583.565     -573.278     -561.078     -549.881     -541.717     -533.522     -529.023     -550.190     -554.594     -593.753     -638.787     -670.245     -647.700     -605.794     -567.704     -539.387     -518.446     -502.090     -489.268     -479.611     -472.763     -468.559     -466.923     -467.612     -470.282     -474.621     -480.247     -486.648     -493.325     -499.987     -506.627     -513.432     -520.653     -528.489     -537.085     -546.516     -556.737     -567.500     -578.114     -587.337     -593.507     -595.755     -595.864     -596.028     -595.455     -599.687
-709.694     -722.881     -728.538     -731.016     -732.702     -734.946     -738.177     -742.161     -746.524     -750.969     -755.239     -758.992     -761.802     -763.385     -763.633     -762.647     -760.599     -757.717     -754.239     -750.411     -746.442     -742.532     -738.909     -735.877     -733.861     -733.417     -735.108     -739.423     -746.712     -757.024     -770.276     -786.627     -807.705     -835.540     -833.279     -789.850     -768.124     -754.624     -747.757     -746.428     -748.605     -751.562     -752.666     -750.312     -744.297     -735.310     -724.426     -713.431     -720.054     -754.827     -747.373     -720.791     -688.992     -660.509     -662.352     -715.033     -746.995     -756.512     -747.085     -733.706     -725.364     -715.642     -704.117     -693.299     -685.626     -683.466     -682.830     -678.941     -677.323     -686.028     -704.423     -752.436     -769.249     -783.195     -762.002     -707.997     -656.657     -667.475     -700.061     -705.013     -732.229     -720.348     -670.804     -647.422     -640.469     -639.633     -627.589     -611.458     -591.753     -569.533     -548.025     -523.641     -490.593     -432.065     -361.616     -334.979     -364.899     -459.207     -507.901     -550.013     -570.845     -568.323     -567.590     -562.046     -556.008     -550.218     -545.086     -540.537     -536.302     -532.262     -528.303     -524.373     -520.466     -516.590     -512.775     -509.056     -505.469     -502.043     -498.807     -495.778     -492.969     -490.388     -488.037     -485.915     -484.018     -482.341     -480.876     -479.617     -478.555     -477.683     -476.993     -476.479     -476.134     -475.951     -475.924     -476.048     -476.319     -476.731     -477.281     -477.964     -478.778     -479.719     -480.784     -481.971     -483.279     -484.705     -486.248     -487.907     -489.682     -491.571     -493.574     -495.690     -497.920     -500.269     -502.721     -505.291     -507.976     -510.774     -513.687     -516.714     -519.856     -523.113     -526.485     -529.972     -533.573     -537.287     -541.112     -545.044     -549.075     -553.191     -557.374     -561.594     -565.804     -569.936     -573.903     -577.578     -580.806     -583.398     -585.133     -585.773     -585.075     -582.839     -578.899     -573.233     -566.046     -557.908     -550.042     -543.253     -538.594     -540.474     -554.910     -572.657     -585.944     -564.382     -619.698     -645.026     -584.647     -534.743     -504.812     -485.708     -470.334     -458.382     -449.875     -444.172     -441.132     -441.167     -443.991     -448.929     -455.803     -464.301     -473.529     -482.526     -490.806     -498.454     -505.876     -513.466     -521.507     -530.151     -539.384     -549.028     -558.712     -567.889     -575.818     -581.759     -585.482     -587.436     -588.536     -589.256     -589.698
-679.739     -696.547     -709.240     -717.870     -724.134     -730.470     -737.854     -745.658     -753.193     -760.378     -767.188     -773.199     -777.748     -780.331     -780.943     -779.828     -777.293     -773.648     -769.223     -764.341     -759.253     -754.154     -749.216     -744.761     -741.332     -739.636     -740.446     -744.485     -752.084     -763.011     -776.361     -791.089     -806.511     -821.403     -811.230     -778.127     -759.720     -750.133     -748.709     -754.646     -765.470     -777.070     -784.986     -786.711     -782.976     -776.224     -768.600     -762.431     -763.871     -772.978     -774.928     -769.600     -763.256     -762.308     -774.585     -798.711     -816.195     -821.235     -816.960     -808.865     -804.442     -801.179     -790.174     -770.025     -752.409     -748.309     -744.372     -717.536     -684.935     -697.384     -699.408     -792.609     -766.586     -726.530     -672.531     -606.941     -522.617     -584.377     -643.057     -706.800     -704.982     -695.919     -685.355     -666.783     -665.026     -667.029     -665.153     -657.719     -645.745     -632.455     -622.702     -602.086     -582.691     -545.242     -512.460     -487.954     -453.640     -515.250     -565.760     -582.543     -586.582     -575.854     -569.921     -566.331     -562.872     -559.241     -555.623     -551.941     -548.298     -544.606     -540.858     -537.073     -533.250     -529.411     -525.601     -521.849     -518.188     -514.654     -511.275     -508.070     -505.055     -502.244     -499.641     -497.251     -495.071     -493.102     -491.338     -489.776     -488.408     -487.230     -486.234     -485.416     -484.769     -484.286     -483.964     -483.796     -483.778     -483.904     -484.170     -484.573     -485.108     -485.773     -486.564     -487.477     -488.511     -489.664     -490.932     -492.315     -493.810     -495.416     -497.132     -498.956     -500.887     -502.924     -505.066     -507.312     -509.660     -512.109     -514.659     -517.307     -520.052     -522.893     -525.827     -528.854     -531.969     -535.168     -538.448     -541.802     -545.220     -548.688     -552.184     -555.680     -559.132     -562.479     -565.640     -568.508     -570.950     -572.808     -573.903     -574.050     -573.073     -570.816     -567.203     -562.240     -556.099     -549.203     -542.139     -535.601     -530.428     -528.075     -529.230     -531.949     -532.236     -526.137     -523.544     -528.235     -476.510     -452.116     -442.484     -437.630     -425.961     -416.841     -411.379     -407.210     -405.021     -407.336     -413.426     -421.141     -431.378     -444.396     -458.137     -470.636     -481.121     -490.055     -498.355     -506.666     -515.365     -524.638     -534.421     -544.349     -553.978     -562.867     -570.620     -576.902     -581.643     -585.078     -587.585     -589.348     -589.862
-650.781     -673.779     -695.397     -709.831     -718.760     -728.731     -741.179     -753.294     -763.708     -773.216     -782.571     -791.202     -797.621     -800.894     -801.312     -799.499     -795.911     -790.895     -784.890     -778.366     -771.667     -764.849     -757.925     -751.174     -745.195     -740.923     -739.511     -741.995     -748.879     -759.725     -772.605     -783.611     -788.192     -783.482     -766.888     -744.635     -729.469     -724.246     -730.169     -747.095     -771.819     -797.461     -815.339     -820.459     -816.378     -809.847     -804.664     -801.197     -802.168     -808.967     -816.411     -822.624     -830.643     -845.623     -865.203     -882.767     -894.691     -899.962     -901.438     -894.779     -899.734     -912.068     -897.388     -856.355     -833.067     -836.689     -864.656     -823.960     -764.048     -760.012     -732.822     -746.846     -707.568     -634.238     -587.492     -651.572     -668.172     -762.906     -714.219     -749.179     -763.152     -756.526     -744.643     -730.501     -721.805     -718.818     -720.852     -722.234     -718.969     -714.558     -729.135     -737.466     -721.456     -715.332     -659.902     -592.479     -534.680     -513.957     -544.244     -577.341     -596.866     -601.615     -598.927     -593.474     -587.348     -581.417     -575.911     -570.815     -566.006     -561.410     -556.966     -552.611     -548.328     -544.121     -539.992     -535.953     -532.031     -528.246     -524.616     -521.155     -517.880     -514.802     -511.926     -509.253     -506.788     -504.528     -502.472     -500.614     -498.952     -497.478     -496.189     -495.078     -494.140     -493.369     -492.760     -492.308     -492.007     -491.853     -491.840     -491.966     -492.225     -492.613     -493.128     -493.766     -494.523     -495.398     -496.386     -497.486     -498.695     -500.011     -501.432     -502.956     -504.580     -506.303     -508.122     -510.036     -512.042     -514.137     -516.321     -518.589     -520.939     -523.368     -525.873     -528.450     -531.095     -533.801     -536.561     -539.368     -542.210     -545.071     -547.928     -550.752     -553.502     -556.121     -558.535     -560.650     -562.352     -563.506     -563.967     -563.584     -562.222     -559.780     -556.205     -551.542     -545.942     -539.705     -533.239     -527.057     -521.766     -517.896     -515.337     -512.206     -504.084     -485.700     -461.600     -440.875     -440.207     -428.307     -417.600     -416.893     -387.093     -373.803     -368.651     -362.625     -357.076     -362.291     -374.243     -384.246     -398.806     -420.140     -441.564     -459.517     -472.783     -483.009     -492.323     -501.641     -511.239     -521.558     -532.474     -543.290     -553.328     -562.300     -570.053     -576.456     -581.452     -585.186     -587.844     -589.517     -589.990
-613.512     -649.834     -691.528     -712.650     -719.220     -732.519     -753.055     -770.237     -781.815     -792.239     -804.252     -816.646     -825.598     -828.818     -828.011     -824.688     -819.179     -811.756     -803.056     -793.967     -785.026     -776.010     -766.483     -756.507     -746.779     -738.547     -733.526     -733.442     -739.358     -751.263     -766.856     -778.720     -774.699     -752.462     -724.362     -700.196     -684.683     -681.055     -693.096     -723.837     -769.143     -818.038     -851.920     -856.932     -846.002     -835.861     -833.722     -830.337     -829.384     -841.070     -855.663     -870.500     -888.305     -924.004     -960.756     -978.465     -988.008     -987.401     -1000.60     -984.922     -1012.66     -1087.11     -1063.01     -995.425     -965.374     -923.204     -924.890     -904.890     -868.663     -844.920     -831.267     -831.239     -824.506     -813.243     -838.626     -947.005     -972.923     -962.505     -920.661     -862.055     -841.540     -822.673     -804.708     -789.980     -779.436     -774.939     -788.359     -805.393     -809.140     -781.632     -770.365     -763.429     -758.380     -758.750     -781.541     -787.901     -738.268     -669.093     -638.722     -634.262     -633.779     -631.487     -626.977     -620.952     -614.115     -607.084     -600.209     -593.649     -587.447     -581.597     -576.042     -570.742     -565.663     -560.775     -556.062     -551.524     -547.162     -542.979     -538.982     -535.181     -531.582     -528.189     -525.004     -522.030     -519.266     -516.711     -514.361     -512.212     -510.260     -508.499     -506.924     -505.530     -504.310     -503.260     -502.372     -501.643     -501.066     -500.637     -500.350     -500.201     -500.186     -500.300     -500.539     -500.901     -501.380     -501.974     -502.680     -503.494     -504.413     -505.436     -506.558     -507.777     -509.091     -510.497     -511.992     -513.573     -515.236     -516.980     -518.800     -520.693     -522.656     -524.683     -526.770     -528.913     -531.104     -533.338     -535.605     -537.894     -540.192     -542.482     -544.740     -546.937     -549.032     -550.974     -552.697     -554.118     -555.141     -555.655     -555.543     -554.691     -553.000     -550.406     -546.893     -542.517     -537.415     -531.806     -525.987     -520.265     -514.907     -509.979     -505.013     -498.940     -490.225     -478.325     -466.253     -460.487     -470.904     -481.622     -502.139     -428.283     -338.269     -327.326     -328.186     -319.649     -301.111     -309.725     -334.271     -342.592     -361.773     -397.921     -430.667     -456.958     -472.736     -482.568     -492.578     -502.502     -512.207     -523.229     -535.610     -547.572     -557.885     -566.660     -574.118     -580.172     -584.667     -587.750     -589.686     -590.623     -590.677
-591.907     -641.225     -733.116     -754.830     -735.875     -747.789     -778.400     -798.047     -804.904     -815.186     -832.932     -854.257     -869.069     -870.482     -866.682     -860.502     -851.115     -838.956     -825.029     -811.452     -799.626     -788.444     -776.066     -762.426     -748.256     -734.900     -724.970     -721.418     -725.919     -739.529     -762.314     -784.826     -772.848     -717.582     -666.880     -633.824     -613.282     -607.258     -624.090     -675.720     -758.099     -851.935     -921.539     -916.418     -883.243     -857.676     -864.825     -853.586     -836.383     -862.305     -873.560     -883.944     -894.651     -964.208     -1027.31     -1026.21     -1033.93     -1034.77     -1074.67     -1071.98     -1071.66     -1114.61     -1103.20     -1068.56     -1032.62     -999.029     -978.237     -960.479     -941.660     -928.297     -922.877     -923.952     -926.289     -931.800     -956.259     -1004.87     -1005.92     -975.604     -936.749     -894.055     -866.337     -840.277     -814.378     -793.006     -783.293     -780.392     -820.114     -864.522     -865.990     -871.151     -851.629     -840.690     -845.341     -802.102     -745.295     -709.029     -728.445     -716.312     -698.186     -687.130     -678.674     -670.186     -661.225     -652.060     -642.918     -634.036     -625.598     -617.630     -610.146     -603.122     -596.511     -590.267     -584.347     -578.720     -573.359     -568.247     -563.372     -558.729     -554.315     -550.129     -546.169     -542.436     -538.926     -535.639     -532.571     -529.719     -527.078     -524.642     -522.408     -520.367     -518.516     -516.847     -515.354     -514.032     -512.874     -511.874     -511.028     -510.329     -509.773     -509.354     -509.068     -508.911     -508.877     -508.963     -509.165     -509.479     -509.902     -510.431     -511.061     -511.789     -512.613     -513.529     -514.534     -515.624     -516.797     -518.048     -519.375     -520.772     -522.237     -523.765     -525.351     -526.990     -528.676     -530.403     -532.163     -533.949     -535.750     -537.553     -539.343     -541.103     -542.809     -544.432     -545.933     -547.267     -548.376     -549.190     -549.629     -549.606     -549.030     -547.817     -545.898     -543.236     -539.833     -535.742     -531.073     -525.986     -520.673     -515.322     -510.057     -504.872     -499.504     -493.505     -486.461     -478.511     -471.272     -466.374     -462.692     -454.970     -442.499     -392.086     -379.268     -379.391     -378.563     -378.191     -374.773     -374.218     -387.708     -338.243     -336.006     -397.714     -451.359     -489.792     -499.942     -501.079     -508.742     -516.242     -521.811     -531.626     -546.128     -559.425     -569.136     -576.949     -583.743     -589.128     -592.409     -594.006     -594.569     -594.169     -593.262
-653.780     -630.172     -758.330     -795.800     -698.076     -726.938     -782.464     -811.911     -809.664     -831.652     -869.601     -917.279     -947.167     -934.187     -921.131     -906.494     -887.614     -866.415     -842.827     -821.759     -807.699     -796.411     -782.150     -766.282     -749.535     -732.681     -719.927     -716.281     -722.613     -739.698     -773.266     -828.369     -817.019     -681.854     -599.530     -550.067     -508.437     -477.278     -487.335     -596.463     -767.809     -937.717     -1117.30     -1072.09     -993.876     -927.059     -987.709     -969.684     -889.768     -901.117     -883.263     -861.146     -782.529     -776.935     -794.660     -807.058     -852.908     -915.436     -978.950     -1027.96     -1073.05     -1092.82     -1085.57     -1066.80     -1043.57     -1021.63     -1003.52     -988.633     -975.790     -966.636     -961.969     -960.868     -961.510     -964.298     -972.807     -983.195     -978.096     -958.733     -930.641     -908.315     -891.990     -860.307     -833.706     -814.284     -803.922     -791.569     -794.665     -888.826     -889.144     -881.295     -858.832     -835.817     -810.707     -767.074     -750.542     -751.018     -753.387     -744.438     -730.577     -718.495     -707.853     -697.724     -687.670     -677.601     -667.689     -658.085     -648.869     -640.122     -631.874     -624.091     -616.749     -609.818     -603.261     -597.045     -591.142     -585.535     -580.209     -575.151     -570.351     -565.805     -561.507     -557.452     -553.636     -550.052     -546.697     -543.563     -540.647     -537.941     -535.438     -533.134     -531.019     -529.088     -527.335     -525.752     -524.334     -523.075     -521.968     -521.008     -520.190     -519.508     -518.957     -518.533     -518.231     -518.046     -517.975     -518.013     -518.157     -518.403     -518.748     -519.186     -519.716     -520.333     -521.034     -521.816     -522.673     -523.604     -524.602     -525.665     -526.787     -527.964     -529.190     -530.459     -531.766     -533.101     -534.458     -535.826     -537.196     -538.553     -539.883     -541.165     -542.379     -543.496     -544.483     -545.297     -545.890     -546.206     -546.181     -545.746     -544.831     -543.378     -541.339     -538.687     -535.432     -531.616     -527.311     -522.622     -517.656     -512.503     -507.198     -501.653     -495.677     -489.000     -481.343     -472.732     -463.612     -454.369     -444.420     -431.988     -415.118     -391.121     -379.912     -368.865     -356.212     -389.639     -455.816     -469.194     -447.552     -398.025     -426.102     -479.091     -533.637     -571.174     -551.030     -521.332     -531.194     -534.985     -531.073     -538.896     -560.993     -579.139     -587.365     -593.754     -600.031     -605.018     -605.824     -604.681     -603.372     -600.716     -598.053
-891.873     -876.130     -897.559     -972.721     -941.354     -918.894     -843.611     -792.589     -751.948     -767.800     -813.768     -882.577     -920.694     -910.461     -924.690     -917.211     -896.542     -871.294     -832.664     -797.063     -782.834     -777.639     -764.490     -751.010     -734.073     -711.978     -693.535     -694.292     -711.628     -745.743     -797.378     -911.656     -956.511     -795.176     -706.266     -640.409     -574.437     -527.652     -533.098     -633.629     -791.290     -912.104     -1098.96     -1091.31     -1058.45     -1013.79     -1010.29     -950.671     -822.227     -721.577     -675.772     -566.629     -358.040     -278.669     -328.389     -402.943     -548.247     -680.323     -803.943     -905.758     -1004.79     -1035.62     -1035.46     -1028.57     -1018.98     -1008.02     -998.852     -991.085     -985.427     -982.497     -982.837     -986.034     -990.013     -992.291     -991.928     -988.530     -979.032     -964.861     -949.730     -944.066     -942.927     -918.306     -905.727     -917.702     -966.066     -971.030     -918.047     -912.592     -903.397     -890.921     -873.773     -854.460     -831.269     -801.261     -777.494     -764.847     -758.504     -751.901     -743.613     -734.492     -725.155     -715.704     -706.139     -696.513     -686.932     -677.522     -668.392     -659.608     -651.204     -643.196     -635.583     -628.347     -621.466     -614.923     -608.699     -602.781     -597.153     -591.803     -586.724     -581.908     -577.350     -573.040     -568.975     -565.146     -561.548     -558.176     -555.021     -552.078     -549.339     -546.797     -544.444     -542.275     -540.282     -538.458     -536.798     -535.295     -533.943     -532.735     -531.668     -530.734     -529.929     -529.249     -528.687     -528.241     -527.906     -527.677     -527.550     -527.522     -527.589     -527.746     -527.991     -528.319     -528.727     -529.210     -529.766     -530.388     -531.074     -531.818     -532.616     -533.462     -534.350     -535.275     -536.229     -537.205     -538.193     -539.185     -540.168     -541.131     -542.057     -542.928     -543.723     -544.418     -544.984     -545.386     -545.582     -545.527     -545.173     -544.468     -543.362     -541.808     -539.777     -537.257     -534.249     -530.783     -526.911     -522.697     -518.196     -513.445     -508.449     -503.146     -497.401     -491.081     -484.099     -476.450     -468.261     -459.544     -449.933     -438.668     -424.607     -408.931     -396.715     -386.715     -373.513     -373.183     -412.376     -438.486     -452.413     -449.343     -464.305     -477.921     -470.821     -444.596     -460.900     -480.626     -529.514     -532.089     -517.009     -527.548     -585.619     -624.030     -620.639     -620.371     -622.739     -627.845     -622.309     -616.055     -614.291     -607.702     -602.600
-884.800     -878.841     -879.689     -895.473     -880.995     -855.032     -802.148     -763.175     -741.188     -744.526     -757.261     -784.488     -783.345     -817.366     -898.425     -927.630     -922.842     -892.917     -814.971     -751.172     -747.971     -764.165     -744.604     -722.974     -695.126     -646.810     -587.709     -566.461     -563.429     -598.174     -592.414     -685.800     -750.919     -804.889     -810.740     -787.907     -775.490     -722.819     -714.236     -720.460     -735.570     -772.683     -856.548     -863.983     -939.608     -948.921     -935.117     -874.031     -775.636     -695.452     -746.573     -707.240     -542.243     -454.819     -476.422     -515.772     -598.816     -687.141     -773.234     -848.924     -914.589     -951.668     -969.464     -979.445     -985.278     -988.574     -991.120     -993.693     -997.010     -1002.42     -1010.80     -1022.42     -1034.90     -1040.21     -1034.75     -1025.26     -1014.42     -1003.26     -993.718     -985.863     -976.616     -964.233     -956.562     -958.151     -962.727     -954.754     -932.414     -918.299     -907.509     -895.741     -881.824     -865.706     -846.893     -826.063     -807.235     -792.653     -781.248     -770.986     -760.843     -750.788     -740.936     -731.258     -721.704     -712.264     -702.961     -693.848     -684.983     -676.408     -668.154     -660.234     -652.649     -645.396     -638.464     -631.845     -625.526     -619.496     -613.744     -608.264     -603.049     -598.091     -593.385     -588.923     -584.698     -580.707     -576.941     -573.396     -570.064     -566.939     -564.012     -561.278     -558.729     -556.359     -554.161     -552.128     -550.255     -548.535     -546.962     -545.531     -544.235     -543.070     -542.031     -541.111     -540.308     -539.617     -539.033     -538.552     -538.170     -537.883     -537.687     -537.578     -537.554     -537.609     -537.740     -537.944     -538.215     -538.549     -538.943     -539.392     -539.890     -540.432     -541.012     -541.625     -542.262     -542.917     -543.581     -544.243     -544.894     -545.521     -546.110     -546.646     -547.108     -547.476     -547.725     -547.827     -547.752     -547.465     -546.926     -546.101     -544.956     -543.463     -541.599     -539.358     -536.754     -533.811     -530.565     -527.061     -523.352     -519.469     -515.420     -511.196     -506.768     -502.098     -497.196     -492.145     -487.004     -481.822     -476.619     -471.286     -465.791     -460.870     -457.834     -456.809     -457.404     -464.642     -482.183     -490.994     -508.304     -522.946     -553.108     -539.167     -502.489     -470.318     -500.629     -540.006     -544.080     -568.724     -579.881     -603.584     -628.237     -634.303     -608.094     -618.351     -618.954     -637.462     -621.499     -609.250     -618.058     -605.189     -601.185
-853.611     -847.124     -832.389     -815.513     -807.708     -793.272     -779.151     -770.624     -763.512     -764.669     -772.270     -785.525     -794.948     -814.359     -845.295     -857.692     -855.664     -838.718     -800.851     -769.501     -754.801     -743.495     -722.732     -711.836     -696.032     -659.485     -608.816     -572.730     -539.832     -511.700     -474.773     -489.878     -522.859     -579.220     -610.019     -632.909     -658.074     -659.903     -683.767     -703.674     -713.450     -733.800     -764.244     -779.045     -828.313     -853.162     -845.604     -809.593     -781.762     -767.345     -775.168     -756.329     -710.393     -692.918     -712.533     -743.884     -786.937     -835.255     -883.205     -928.279     -965.045     -986.351     -996.653     -1003.13     -1008.86     -1014.62     -1021.28     -1028.98     -1037.85     -1049.68     -1066.07     -1086.91     -1109.80     -1117.41     -1097.96     -1077.40     -1059.35     -1043.20     -1028.57     -1014.76     -1000.81     -987.143     -976.075     -968.437     -961.177     -949.754     -934.383     -920.143     -907.634     -895.411     -882.479     -868.362     -852.988     -836.989     -821.752     -808.216     -796.253     -785.215     -774.632     -764.339     -754.303     -744.511     -734.957     -725.632     -716.538     -707.691     -699.118     -690.836     -682.852     -675.173     -667.797     -660.721     -653.939     -647.439     -641.213     -635.253     -629.553     -624.108     -618.910     -613.952     -609.229     -604.736     -600.467     -596.418     -592.582     -588.955     -585.528     -582.297     -579.254     -576.393     -573.708     -571.194     -568.843     -566.650     -564.610     -562.715     -560.961     -559.342     -557.853     -556.490     -555.246     -554.118     -553.101     -552.192     -551.385     -550.677     -550.064     -549.543     -549.109     -548.759     -548.488     -548.295     -548.174     -548.122     -548.136     -548.210     -548.340     -548.523     -548.753     -549.025     -549.333     -549.671     -550.034     -550.413     -550.800     -551.188     -551.565     -551.921     -552.244     -552.520     -552.733     -552.867     -552.901     -552.813     -552.581     -552.180     -551.585     -550.769     -549.712     -548.396     -546.814     -544.965     -542.861     -540.527     -537.995     -535.303     -532.492     -529.594     -526.626     -523.601     -520.528     -517.413     -514.261     -511.115     -508.036     -505.039     -502.067     -499.118     -496.269     -493.736     -491.907     -491.044     -491.664     -495.400     -502.383     -510.117     -522.962     -532.343     -541.255     -532.292     -516.359     -533.164     -557.483     -573.511     -585.609     -598.376     -599.260     -609.244     -593.389     -559.429     -552.188     -562.049     -576.605     -577.152     -576.718     -576.231     -589.671     -575.963     -587.874
-790.881     -797.049     -793.018     -785.724     -784.663     -782.449     -782.440     -783.532     -778.614     -775.799     -778.094     -785.061     -795.566     -812.078     -830.933     -843.719     -851.025     -832.697     -803.896     -787.808     -753.492     -729.452     -745.454     -795.392     -832.196     -811.797     -742.333     -662.514     -574.755     -456.558     -359.264     -295.566     -286.990     -303.989     -336.226     -415.382     -489.124     -550.116     -622.179     -670.764     -701.741     -731.159     -741.526     -776.085     -809.168     -831.217     -815.332     -769.282     -774.090     -795.801     -815.318     -826.320     -831.131     -844.481     -869.652     -897.874     -925.198     -953.463     -981.892     -1013.06     -1040.68     -1047.65     -1046.38     -1045.79     -1046.83     -1049.09     -1053.06     -1059.31     -1067.65     -1078.85     -1097.93     -1126.48     -1157.41     -1164.57     -1129.04     -1097.80     -1073.08     -1051.75     -1032.56     -1015.29     -999.463     -984.965     -972.169     -960.956     -950.112     -938.183     -925.225     -912.468     -900.336     -888.442     -876.358     -863.836     -850.870     -837.752     -825.004     -813.024     -801.867     -791.342     -781.240     -771.446     -761.917     -752.640     -743.600     -734.797     -726.240     -717.940     -709.901     -702.127     -694.624     -687.397     -680.441     -673.750     -667.315     -661.131     -655.192     -649.492     -644.026     -638.787     -633.768     -628.965     -624.374     -619.991     -615.811     -611.831     -608.044     -604.444     -601.028     -597.789     -594.722     -591.822     -589.084     -586.503     -584.072     -581.788     -579.645     -577.636     -575.759     -574.008     -572.377     -570.864     -569.464     -568.171     -566.984     -565.898     -564.908     -564.012     -563.206     -562.485     -561.849     -561.292     -560.811     -560.403     -560.066     -559.793     -559.583     -559.432     -559.335     -559.289     -559.289     -559.330     -559.407     -559.515     -559.647     -559.798     -559.960     -560.126     -560.287     -560.433     -560.555     -560.641     -560.678     -560.654     -560.553     -560.359     -560.055     -559.624     -559.049     -558.314     -557.406     -556.315     -555.040     -553.581     -551.952     -550.170     -548.264     -546.257     -544.177     -542.047     -539.888     -537.706     -535.503     -533.278     -531.042     -528.801     -526.561     -524.307     -522.036     -519.745     -517.489     -515.416     -513.759     -512.766     -512.802     -514.346     -517.470     -521.846     -527.398     -531.525     -533.695     -533.180     -531.951     -540.048     -534.938     -537.734     -543.226     -557.963     -562.113     -565.583     -575.274     -563.839     -559.200     -565.169     -561.316     -543.637     -539.640     -541.970     -529.857     -483.110     -470.400
-761.009     -780.075     -785.366     -785.532     -788.971     -794.882     -799.282     -794.252     -780.535     -769.005     -763.206     -762.685     -765.556     -775.487     -782.712     -779.724     -772.034     -751.109     -732.619     -732.947     -724.836     -709.636     -705.577     -712.480     -717.535     -701.936     -663.951     -619.987     -570.411     -501.818     -444.814     -408.969     -398.612     -404.539     -423.034     -475.752     -523.391     -563.381     -613.636     -657.787     -692.910     -721.340     -734.565     -757.774     -783.162     -806.838     -820.179     -821.055     -838.837     -865.348     -893.266     -924.742     -949.348     -975.092     -1003.46     -1024.77     -1034.81     -1048.30     -1065.24     -1083.26     -1111.81     -1098.52     -1076.17     -1056.02     -1039.53     -1025.84     -1013.04     -1001.67     -992.648     -986.743     -989.088     -1004.11     -1020.04     -1026.07     -1017.02     -1004.17     -991.814     -980.441     -969.861     -959.658     -949.729     -940.215     -931.320     -922.863     -914.388     -905.436     -896.000     -886.375     -876.795     -867.204     -857.455     -847.430     -837.166     -826.811     -816.599     -806.710     -797.213     -788.079     -779.231     -770.617     -762.210     -754.004     -746.002     -738.203     -730.608     -723.222     -716.055     -709.113     -702.399     -695.906     -689.631     -683.573     -677.729     -672.097     -666.670     -661.443     -656.410     -651.568     -646.912     -642.441     -638.152     -634.041     -630.105     -626.338     -622.738     -619.301     -616.020     -612.895     -609.920     -607.092     -604.405     -601.856     -599.442     -597.156     -594.995     -592.956     -591.034     -589.224     -587.524     -585.930     -584.438     -583.044     -581.746     -580.541     -579.423     -578.393     -577.446     -576.578     -575.788     -575.072     -574.428     -573.851     -573.341     -572.893     -572.504     -572.171     -571.891     -571.660     -571.473     -571.328     -571.219     -571.141     -571.090     -571.061     -571.046     -571.039     -571.034     -571.023     -570.996     -570.946     -570.863     -570.736     -570.553     -570.303     -569.975     -569.556     -569.035     -568.402     -567.648     -566.768     -565.762     -564.634     -563.392     -562.048     -560.620     -559.128     -557.588     -556.015     -554.421     -552.813     -551.193     -549.565     -547.932     -546.298     -544.668     -543.051     -541.464     -539.946     -538.571     -537.452     -536.754     -536.693     -537.516     -539.407     -542.374     -546.311     -550.952     -555.548     -559.395     -562.318     -565.079     -568.575     -568.288     -569.154     -571.351     -577.821     -579.806     -576.297     -588.744     -570.041     -570.855     -596.535     -582.889     -543.714     -550.709     -562.836     -561.110     -553.624     -553.021
-768.408     -822.611     -846.301     -858.289     -870.890     -883.986     -889.613     -864.928     -821.394     -788.006     -759.896     -741.864     -724.497     -729.614     -731.156     -712.606     -698.661     -678.633     -660.118     -669.958     -686.009     -683.027     -677.365     -667.971     -663.122     -657.492     -638.947     -637.795     -656.374     -669.610     -663.829     -652.305     -653.840     -665.631     -676.209     -703.111     -722.144     -731.964     -738.602     -733.275     -720.533     -718.265     -720.373     -730.749     -751.419     -771.128     -809.605     -854.274     -876.373     -894.583     -910.863     -939.552     -938.716     -927.476     -913.662     -889.031     -874.810     -880.907     -901.063     -891.812     -906.888     -910.299     -902.353     -893.622     -885.701     -878.671     -871.763     -864.474     -857.503     -851.417     -852.841     -869.443     -883.549     -891.343     -892.826     -891.219     -888.628     -885.667     -882.508     -879.194     -875.719     -872.102     -868.329     -864.336     -859.992     -855.175     -849.887     -844.203     -838.230     -831.981     -825.437     -818.579     -811.444     -804.136     -796.773     -789.458     -782.242     -775.144     -768.169     -761.311     -754.566     -747.933     -741.415     -735.025     -728.776     -722.676     -716.730     -710.936     -705.297     -699.817     -694.499     -689.344     -684.348     -679.508     -674.819     -670.281     -665.892     -661.653     -657.560     -653.610     -649.805     -646.141     -642.614     -639.222     -635.963     -632.835     -629.837     -626.964     -624.214     -621.585     -619.074     -616.677     -614.391     -612.213     -610.142     -608.173     -606.302     -604.528     -602.850     -601.261     -599.760     -598.346     -597.016     -595.766     -594.594     -593.499     -592.478     -591.528     -590.647     -589.834     -589.086     -588.399     -587.771     -587.202     -586.688     -586.226     -585.812     -585.445     -585.122     -584.838     -584.589     -584.373     -584.185     -584.019     -583.871     -583.736     -583.609     -583.482     -583.349     -583.203     -583.038     -582.843     -582.612     -582.337     -582.007     -581.616     -581.156     -580.620     -580.004     -579.305     -578.522     -577.660     -576.725     -575.725     -574.672     -573.580     -572.462     -571.328     -570.186     -569.045     -567.910     -566.788     -565.684     -564.608     -563.572     -562.592     -561.695     -560.924     -560.341     -560.029     -560.092     -560.642     -561.790     -563.607     -566.069     -569.028     -572.214     -575.275     -577.938     -580.104     -581.817     -582.992     -583.353     -584.355     -586.766     -590.578     -593.332     -594.951     -597.557     -593.465     -597.238     -612.313     -604.891     -584.921     -600.546     -622.371     -631.181     -653.580     -669.973
-851.294     -887.497     -909.807     -928.188     -943.501     -958.458     -967.792     -939.184     -885.046     -844.058     -809.562     -798.226     -787.987     -808.960     -821.437     -799.608     -780.109     -751.342     -726.671     -738.506     -764.571     -766.853     -747.624     -706.635     -678.235     -665.304     -644.989     -664.932     -717.635     -761.609     -765.929     -752.204     -736.355     -728.022     -708.708     -722.133     -722.413     -704.545     -687.863     -676.628     -664.548     -659.772     -666.715     -679.363     -688.281     -682.308     -686.168     -691.824     -680.815     -663.630     -641.970     -619.783     -581.554     -536.509     -490.305     -454.816     -484.462     -543.244     -596.635     -627.154     -652.941     -674.203     -689.800     -702.193     -712.885     -722.529     -731.265     -739.048     -745.587     -751.383     -759.382     -771.302     -782.738     -791.384     -796.945     -800.289     -802.377     -803.748     -804.635     -805.125     -805.274     -805.120     -804.653     -803.845     -802.640     -800.994     -798.901     -796.372     -793.455     -790.181     -786.568     -782.635     -778.401     -773.919     -769.257     -764.483     -759.647     -754.784     -749.910     -745.038     -740.178     -735.345     -730.552     -725.811     -721.133     -716.527     -711.999     -707.556     -703.206     -698.951     -694.795     -690.735     -686.773     -682.910     -679.147     -675.484     -671.923     -668.464     -665.106     -661.849     -658.689     -655.628     -652.666     -649.804     -647.039     -644.368     -641.793     -639.312     -636.926     -634.629     -632.421     -630.299     -628.266     -626.317     -624.449     -622.660     -620.951     -619.320     -617.764     -616.279     -614.867     -613.526     -612.253     -611.047     -609.904     -608.827     -607.812     -606.857     -605.960     -605.120     -604.336     -603.607     -602.929     -602.300     -601.721     -601.188     -600.699     -600.250     -599.841     -599.469     -599.131     -598.822     -598.541     -598.282     -598.044     -597.821     -597.609     -597.402     -597.195     -596.985     -596.765     -596.528     -596.270     -595.984     -595.665     -595.307     -594.905     -594.455     -593.955     -593.403     -592.801     -592.151     -591.458     -590.729     -589.972     -589.196     -588.409     -587.623     -586.845     -586.082     -585.340     -584.626     -583.947     -583.316     -582.747     -582.259     -581.875     -581.629     -581.562     -581.729     -582.192     -583.014     -584.242     -585.892     -587.941     -590.309     -592.863     -595.445     -597.908     -600.218     -602.417     -604.566     -606.786     -609.434     -612.788     -616.765     -620.807     -624.638     -628.099     -630.746     -635.312     -641.195     -641.660     -640.895     -649.620     -662.397     -673.973     -687.956     -697.782
-811.688     -824.624     -833.164     -839.578     -845.623     -852.669     -857.739     -852.241     -839.588     -829.917     -824.089     -821.756     -819.882     -824.161     -825.267     -817.911     -811.467     -805.030     -802.823     -800.040     -803.271     -819.009     -804.676     -792.782     -794.218     -794.454     -775.422     -754.298     -746.714     -731.638     -703.332     -683.436     -656.375     -633.492     -604.766     -606.537     -609.586     -595.119     -581.269     -591.074     -598.606     -595.673     -602.427     -610.987     -615.005     -615.032     -616.062     -616.875     -614.001     -609.343     -604.599     -599.696     -589.663     -573.140     -551.814     -536.708     -543.893     -566.109     -590.541     -609.306     -624.153     -636.715     -647.261     -656.393     -664.495     -671.966     -679.105     -685.956     -692.542     -699.134     -706.450     -714.661     -722.718     -729.687     -735.253     -739.565     -742.943     -745.658     -747.901     -749.765     -751.292     -752.500     -753.406     -754.005     -754.297     -754.266     -753.901     -753.205     -752.186     -750.853     -749.215     -747.288     -745.104     -742.691     -740.094     -737.348     -734.483     -731.523     -728.487     -725.392     -722.258     -719.098     -715.928     -712.760     -709.602     -706.460     -703.342     -700.259     -697.211     -694.206     -691.247     -688.334     -685.471     -682.661     -679.905     -677.202     -674.557     -671.968     -669.438     -666.969     -664.560     -662.211     -659.923     -657.696     -655.533     -653.434     -651.395     -649.417     -647.500     -645.645     -643.852     -642.119     -640.444     -638.826     -637.267     -635.766     -634.322     -632.933     -631.598     -630.316     -629.088     -627.913     -626.789     -625.715     -624.690     -623.714     -622.787     -621.907     -621.072     -620.282     -619.535     -618.833     -618.172     -617.552     -616.970     -616.426     -615.919     -615.447     -615.007     -614.598     -614.217     -613.863     -613.533     -613.225     -612.934     -612.658     -612.395     -612.139     -611.889     -611.639     -611.385     -611.124     -610.851     -610.563     -610.256     -609.927     -609.573     -609.190     -608.779     -608.339     -607.869     -607.372     -606.853     -606.317     -605.769     -605.216     -604.664     -604.120     -603.589     -603.077     -602.594     -602.144     -601.737     -601.381     -601.086     -600.868     -600.745     -600.743     -600.890     -601.220     -601.767     -602.557     -603.610     -604.927     -606.484     -608.234     -610.115     -612.055     -613.996     -615.906     -617.781     -619.646     -621.583     -623.701     -626.068     -628.595     -631.071     -633.339     -635.341     -637.178     -639.245     -641.110     -641.782     -642.556     -645.696     -650.530     -655.570     -660.464     -663.821
-771.613     -777.211     -781.499     -784.785     -787.564     -789.988     -790.963     -788.833     -784.487     -780.457     -777.858     -776.649     -776.470     -777.415     -777.331     -774.944     -771.651     -768.195     -765.412     -761.884     -760.250     -760.707     -755.147     -749.692     -747.908     -745.313     -736.799     -726.356     -718.698     -710.207     -700.081     -691.118     -680.553     -668.952     -657.503     -653.423     -650.827     -644.189     -638.671     -639.644     -641.499     -641.157     -642.213     -644.123     -645.447     -646.114     -646.869     -647.458     -647.138     -646.084     -644.724     -642.597     -638.367     -631.534     -623.438     -618.145     -619.643     -626.891     -636.221     -644.787     -651.865     -657.704     -662.605     -666.856     -670.695     -674.259     -677.618     -680.883     -684.188     -687.700     -691.570     -695.739     -699.865     -703.611     -706.833     -709.524     -711.778     -713.691     -715.329     -716.732     -717.935     -718.963     -719.811     -720.475     -720.953     -721.234     -721.312     -721.190     -720.874     -720.365     -719.663     -718.773     -717.710     -716.486     -715.118     -713.625     -712.031     -710.354     -708.605     -706.799     -704.947     -703.059     -701.144     -699.208     -697.261     -695.312     -693.365     -691.423     -689.491     -687.572     -685.667     -683.777     -681.906     -680.057     -678.231     -676.429     -674.653     -672.905     -671.184     -669.492     -667.832     -666.204     -664.607     -663.042     -661.510     -660.011     -658.548     -657.120     -655.728     -654.370     -653.047     -651.759     -650.506     -649.291     -648.111     -646.967     -645.858     -644.782     -643.741     -642.736     -641.766     -640.830     -639.928     -639.059     -638.223     -637.420     -636.651     -635.914     -635.209     -634.536     -633.893     -633.280     -632.698     -632.145     -631.621     -631.124     -630.653     -630.208     -629.787     -629.389     -629.013     -628.657     -628.319     -627.997     -627.690     -627.396     -627.111     -626.834     -626.562     -626.293     -626.023     -625.750     -625.472     -625.185     -624.888     -624.578     -624.253     -623.913     -623.557     -623.185     -622.798     -622.396     -621.983     -621.561     -621.132     -620.703     -620.277     -619.859     -619.453     -619.064     -618.698     -618.357     -618.048     -617.777     -617.552     -617.385     -617.286     -617.270     -617.352     -617.550     -617.876     -618.342     -618.955     -619.712     -620.595     -621.576     -622.620     -623.689     -624.747     -625.780     -626.785     -627.767     -628.744     -629.739     -630.761     -631.773     -632.724     -633.556     -634.236     -634.778     -635.219     -635.489     -635.559     -635.818     -636.724     -638.183     -639.808     -641.270     -642.229
